0.432118086094	-0.166860507581	0.00522093745125	0.92749358	-0.3736262	0.012614119
-0.2850387767	0.304831864351	0.222028749517	-0.61029736	0.63797858	0.46959606
0.365067802612	0.282614223869	0.137693688897	0.75945945	0.57798105	0.29859546
0.392128917904	-0.116663087301	0.23332989513	0.82869108	-0.24561441	0.50293604
0.412151683307	-0.000956230247148	0.203869268569	0.89805169	-0.0058789492	0.43985065
0.218041358318	0.080289719614	-0.41144540447	0.46761463	0.17196276	-0.86704404
-0.20487502457	0.0865577227006	0.424687372516	-0.44624731	0.18313684	0.87597045
0.338126356334	0.186745048301	-0.256749789709	0.74128308	0.38654144	-0.54871223
0.421417673697	-0.0967947316632	0.216662093705	0.87400651	-0.20734319	0.43945582
0.315021768129	-0.0263370247041	0.352994869149	0.67002519	-0.059054992	0.73998565
0.0328511733769	-0.385297611799	-0.291759538362	0.071885136	-0.80092498	-0.59443393
-0.444638456652	-0.0553121325839	-0.179519780403	-0.92313939	-0.12138976	-0.36479884
-0.296289935035	-0.304000222064	-0.192771704813	-0.64371098	-0.64949445	-0.40471364
0.176322505912	0.0614338369523	-0.427674968817	0.37080501	0.12568241	-0.92016714
-0.133040679906	-0.308930259781	0.329292383794	-0.28293011	-0.66087911	0.69511823
0.184627776681	-0.155868857181	-0.403413687213	0.40616394	-0.33606719	-0.84975861
-0.273771014776	0.334524461906	-0.197540335837	-0.57851597	0.69716846	-0.42340926
0.092159095894	-0.162397811147	-0.433893966834	0.20065173	-0.34326719	-0.91755464
-0.153697058773	0.255005128004	0.366779897236	-0.31324363	0.52064853	0.79423141
0.296981792969	0.230750166222	-0.287909828547	0.62843462	0.49194508	-0.60254458
-0.157458087055	-0.192245495573	0.401057819201	-0.33506646	-0.4014882	0.8523718
-0.275011112357	0.081158220329	0.37197869415	-0.57447435	0.17086512	0.80049006
0.0191499893298	0.0504777073743	0.469057521217	0.041500676	0.10092649	0.99402794
0.278674935246	0.19066582918	0.334519497722	0.58546037	0.39419964	0.70840864
0.428363854977	-0.0973198614232	0.193481764914	0.88343522	-0.20335456	0.42212454
-0.464176309685	-0.0781754506087	-0.0821852869252	-0.97004548	-0.16922111	-0.17428709
-0.0570059979941	-0.0934254630346	-0.454795036527	-0.1158104	-0.20285475	-0.97233631
0.370960870274	0.298817753531	0.0528361865413	0.77161686	0.62549921	0.11557745
0.0534097201834	-0.34475021296	0.312642124511	0.11446275	-0.72698199	0.67704908
0.258708285246	0.109517362605	-0.390725186818	0.54359352	0.22531004	-0.80854281
0.246927480417	-0.0901803208428	-0.376492518551	0.52579171	-0.19374165	-0.82825555
0.0219724869736	0.413697779533	0.253527588009	0.050015661	0.84874932	0.52642475
0.429487455553	-0.144471918277	0.105127178281	0.92511948	-0.31196491	0.21640666
-0.0893292735396	0.109828398034	-0.455687767416	-0.18406773	0.22690076	-0.95636558
-0.332906101731	-0.310022821156	-0.127391896901	-0.70848517	-0.65655751	-0.25880688
-0.155862953018	-0.114055536279	-0.438659184803	-0.31869747	-0.23738607	-0.91764905
0.0653105090934	0.369523725606	-0.289146355539	0.13773172	0.77129125	-0.62140147
-0.0355419856144	-0.0686026938363	-0.464669656233	-0.072806784	-0.14640855	-0.98654129
0.305957655203	-0.151484644397	0.325377939344	0.65448721	-0.31974976	0.68513253
0.0227837137551	-0.152794789077	0.442839684294	0.049353186	-0.31859947	0.94660374
-0.424310061287	-0.180642360811	-0.0973048222506	-0.89782868	-0.38938098	-0.20563587
0.114731566426	0.44445834957	0.164215146765	0.24690859	0.90498938	0.34645399
0.374565414292	-0.176858846605	0.204984437813	0.81393858	-0.38535041	0.43475171
-0.1122385646	-0.252060470807	0.400952205253	-0.24245446	-0.54734218	0.80101958
-0.391958586403	0.23389074168	-0.174036340515	-0.7811843	0.50236412	-0.37064994
0.262185823106	-0.331598435347	0.224262098213	0.55084441	-0.68987013	0.46973359
-0.121444429142	-0.36732973309	-0.264327929884	-0.25133064	-0.78982989	-0.55946551
0.343637175155	0.313707874451	-0.103320747546	0.73969378	0.63632758	-0.21895281
0.311421830051	0.182046254175	-0.293013582349	0.65802807	0.38211506	-0.64883522
-0.263245555478	-0.211100442527	0.328858918254	-0.56065754	-0.45162724	0.6940432
-0.178781260939	0.428932663581	-0.0548865266071	-0.3829196	0.9165347	-0.1154847
-0.331044603757	-0.142583142437	0.294204008667	-0.71707378	-0.31519505	0.62165688
0.461237945738	-0.00463793693583	-0.133751078323	0.96090448	-0.013849061	-0.2765335
-0.0121576713126	-0.11840657605	0.458775428901	-0.025206625	-0.2550645	0.96659543
-0.320658107933	-0.317805899299	-0.140991350756	-0.67930694	-0.67172404	-0.29551462
-0.184926138303	-0.152100092705	-0.413164952963	-0.380033	-0.3201957	-0.86778433
-0.423541157902	-0.206583912546	0.0111117773045	-0.89676042	-0.44173998	0.026201898
-0.329551775478	-0.129444048596	0.307852658813	-0.69245693	-0.28234098	0.66391789
0.227832577638	0.370018335738	0.203122443041	0.46739282	0.7745239	0.42621202
-0.00866001204035	-0.408790070682	-0.264986531293	-0.016391246	-0.82701316	-0.56194355
-0.0640723128214	0.158233338731	0.447827015113	-0.13348852	0.33195003	0.93380405
-0.357083719603	-0.0212734978295	0.299923687646	-0.75969937	-0.047375226	0.64854642
-0.117087676906	-0.41489698831	-0.219271267505	-0.24702519	-0.85843954	-0.44951096
0.0714109934952	0.460249931168	0.0421885513201	0.14967704	0.98470413	0.089188293
0.469597761325	0.053703366732	0.0969519955255	0.97119478	0.10643798	0.21319396
0.12495195377	0.38303090219	-0.263755656505	0.25751492	0.79239423	-0.55298956
0.0900457901171	0.451680171673	0.0961356567064	0.19028003	0.96041598	0.20345677
0.328374866622	0.11681368401	0.326792669738	0.68745448	0.24979217	0.68191657
-0.303897923899	0.368522150395	-0.0400895287002	-0.65027938	0.75499252	-0.084397972
-0.347469110799	0.341970720944	0.0503564502191	-0.69905262	0.70730225	0.10511401
-0.460675842246	-0.00663898372298	0.171498040862	-0.93146922	-0.018490223	0.36334996
-0.423715736149	-0.119137061335	-0.182125168669	-0.88311582	-0.25598889	-0.39316173
-0.202022554963	0.122219078682	0.406652416108	-0.42413409	0.24989627	0.87043789
0.293127622884	0.153121751937	0.343080206193	0.60057104	0.31197413	0.73619737
0.214780961057	0.420433023784	0.100177252984	0.47669236	0.8522767	0.21538067
-0.208804779131	0.12772727923	-0.405277988988	-0.42626679	0.28274302	-0.8592747
0.458549947598	-0.105040884889	0.113487904427	0.94231059	-0.22422045	0.24854767
-0.0446631348929	0.311076879022	-0.363496909188	-0.093972457	0.64618665	-0.75737177
-0.461368178472	0.131940775695	-0.0527274674866	-0.95498449	0.27596819	-0.10884017
0.0525678634066	0.43188556326	0.200727882197	0.11271474	0.90156744	0.4176979
-0.328544912951	0.105597746615	-0.328073583049	-0.71037648	0.22168137	-0.66799897
0.0951540521128	-0.362855707572	0.310129574845	0.20977667	-0.7180913	0.66358016
0.215411877008	0.307281048306	0.284847662244	0.45616859	0.65536979	0.60199722
-0.0486113225587	0.456671038916	0.117023105972	-0.10048081	0.96249891	0.251991
-0.234494676325	-0.105745436083	0.403630193411	-0.4859048	-0.23914521	0.84065813
0.00877252626191	0.27440601045	0.377067777938	0.020090205	0.60613172	0.79511051
0.285883680695	-0.155490856983	0.362716034726	0.59145028	-0.32673175	0.73717904
0.194569452733	0.0820078702394	-0.42162619459	0.4165574	0.17231313	-0.89262989
-0.179456202117	-0.0196533096085	0.440313934604	-0.38738522	-0.044542643	0.92084127
0.465760242278	0.0106066145076	-0.00852592155265	0.9997052	0.018084417	-0.016200899
-0.421776768998	0.0998749971678	-0.202622006563	-0.87987535	0.20233964	-0.42997446
-0.427191761314	-0.18275205377	-0.062012522205	-0.91123445	-0.39142071	-0.12822482
0.373362015709	0.175292165763	0.250664487303	0.77751324	0.36140835	0.51464275
0.0254462097382	0.305765523426	-0.37425461279	0.054398475	0.63532282	-0.77032832
-0.377490587706	0.286693952124	0.0462198133923	-0.80486019	0.58470038	0.10161466
-0.180939469287	-0.142424693757	0.415954572161	-0.36658105	-0.30026298	0.88060233
0.369694132552	-0.28776971774	0.0666337935358	0.7913769	-0.59453331	0.14231215
-0.121278971671	-0.467884289237	-0.0268729371642	-0.24810329	-0.96717708	-0.054893126
-0.00580457284325	0.450705624269	-0.133333818269	-0.010805371	0.95882755	-0.28378333
-0.336121130939	-0.339173265907	-0.0434765640983	-0.68151467	-0.72624964	-0.089995675
-0.0253765588432	-0.401890031833	0.241045417281	-0.050503498	-0.84792094	0.52771155
0.145214099432	0.240083079151	0.387161697678	0.30644293	0.49590556	0.81250871
0.174165469571	-0.440223061844	0.0259162742994	0.36418413	-0.92968864	0.055217388
0.352518974589	0.271725668314	-0.190280768946	0.71556693	0.57944451	-0.39013848
-0.0839848493206	0.478948482115	0.0106525606866	-0.17652391	0.98400405	0.023986123
-0.250927406395	-0.0999537773792	0.390409948298	-0.51142071	-0.21084357	0.83306293
-0.1922468849	-0.346303300421	0.259034068981	-0.39435975	-0.73536956	0.55110071
0.0488772760568	0.413591645062	0.244818541907	0.10157759	0.84887713	0.51873848
-0.370829308474	-0.0278665355158	0.286419103237	-0.7887144	-0.063607567	0.61146028
0.337893667901	-0.154621826255	0.283103486424	0.72239162	-0.34261565	0.60063704
-0.467312227958	0.038338318704	0.0358510916449	-0.99349451	0.080657709	0.080392787
-0.420785687756	0.147713086085	-0.159438315489	-0.8945631	0.30079142	-0.33057735
0.174913134958	0.0784211952928	-0.449209954229	0.36639726	0.15966155	-0.91665765
-0.181784083839	0.213169643837	-0.385443677065	-0.38791915	0.44005957	-0.80985573
-0.356088954369	0.0167458586462	-0.325066816133	-0.72781383	0.031033597	-0.68507222
-0.205481198365	-0.210797492997	0.361316968417	-0.42948227	-0.45225002	0.78167442
-0.0630609995154	0.477185930936	-0.00362561203134	-0.13650471	0.99062048	-0.0061262208
-0.223484336449	-0.356320652053	-0.180058272939	-0.46951399	-0.79405093	-0.38605665
0.203159733262	-0.394914131876	0.163900536952	0.42462684	-0.83522114	0.34942479
-0.430496958654	0.0868326223594	0.17503546495	-0.9075516	0.1728827	0.3827031
-0.135417886034	0.0477302141344	-0.454317441846	-0.28645196	0.095243522	-0.95334881
-0.0560607023619	-0.055186520498	0.457832603498	-0.11606656	-0.12381505	0.98549398
-0.361331638906	0.128305575395	-0.285948313313	-0.75299862	0.26594256	-0.60188672
0.106623606092	-0.381542804643	-0.276657011845	0.22911555	-0.78132266	-0.58055229
0.321106685718	-0.0839003291228	-0.337506934117	0.69238092	-0.17613029	-0.69970478
-0.116556367301	0.248816877373	0.379924147908	-0.23955466	0.5109332	0.82556698
-0.361656555735	0.112116488938	-0.294698744541	-0.74450633	0.22724992	-0.62774819
-0.11280534046	0.464035958783	0.0639340164899	-0.23685289	0.96238537	0.13309813
0.199914731046	0.437920159051	0.014545226498	0.4207743	0.90659542	0.032151695
-0.243011474398	-0.13625816938	0.377254643751	-0.52580203	-0.2967011	0.79718296
-0.248742801796	-0.146912485847	0.367783240421	-0.51027423	-0.29926328	0.80626404
-0.233795663456	-0.0940550893032	0.396325278871	-0.49535896	-0.19730763	0.84598416
0.018686942717	-0.261564491515	-0.398682908688	0.041213578	-0.54322713	-0.83857363
-0.305401015067	0.205937320648	0.285673132752	-0.65903774	0.44452904	0.60668211
-0.127468138081	-0.00119221404071	-0.462835414298	-0.27746281	-0.0064136932	-0.96071497
-0.174453465338	-0.215876132638	0.380412444862	-0.37655206	-0.45714308	0.80574732
0.302800840096	0.112571666023	0.338462983742	0.66211089	0.23651547	0.71110449
-0.190997822653	0.307680227664	-0.301986179098	-0.39136034	0.66189198	-0.63932471
0.446216766934	0.0490648419422	-0.0905331072357	0.97778115	0.095314371	-0.18670618
0.217385846831	-0.0081250322035	-0.428816736447	0.47081828	-0.020337938	-0.88199576
0.272397500114	0.0497280870607	-0.394325957164	0.57650455	0.096449828	-0.8113815
0.422668865484	-0.221299625563	0.0333260335339	0.88573079	-0.45870174	0.07122982
0.177409674157	-0.384981661533	0.20605581386	0.36681645	-0.82483972	0.43021521
0.148632719987	-0.349127760014	-0.285251704718	0.32044886	-0.7487578	-0.58023641
0.452380825351	-0.14582718522	0.0346655938296	0.94915623	-0.30638176	0.072337235
0.141229116778	-0.427151481764	0.178041867927	0.29247437	-0.87962119	0.37513372
0.253066995493	0.0593135366196	0.405960254022	0.50587519	0.12205436	0.853928
-0.308588833788	0.0425014040239	0.357467584106	-0.63896155	0.083024804	0.76474507
-0.319120257035	-0.314535762519	0.135029915237	-0.69838106	-0.6547234	0.28913866
0.0795839722135	-0.327584949202	0.32679456298	0.16935207	-0.70705581	0.6865799
0.00223498220697	0.469548814618	-0.0430404833698	0.0064239106	0.99597568	-0.089393351
-0.198094033619	-0.386673634651	-0.189453320261	-0.42114131	-0.81784811	-0.39212812
-0.140511885608	0.374365644541	-0.25156379614	-0.2908281	0.78400511	-0.54841135
-0.112065716843	0.422217776663	0.191399140093	-0.2329256	0.88555781	0.40191171
-0.418058246604	-0.043660422741	0.177468890395	-0.92319565	-0.097849545	0.37166553
0.104431804327	-0.0951649489293	-0.464573251317	0.22578424	-0.21197023	-0.95083653
-0.301208745686	0.33523343019	0.136276997409	-0.62094205	0.71940224	0.31127381
0.150333729894	-0.284131563698	0.352201360263	0.32145882	-0.57343539	0.75354899
-0.249568087725	0.00795996576506	0.387707603276	-0.52042342	0.012236907	0.85382066
-0.399840838151	0.02431903606	0.248750037871	-0.84621793	0.047567547	0.53070948
-0.0533787398198	0.401210950197	-0.250868416492	-0.10823975	0.84885698	-0.51742244
0.0373438258787	-0.0183890531715	0.471531230008	0.078493016	-0.042605611	0.99600382
-0.105305234114	-0.42379363949	-0.175319659999	-0.21708239	-0.90548212	-0.36466061
-0.425171751077	-0.225218344754	0.0370847825708	-0.87219945	-0.48285121	0.078248523
0.0390264388845	0.112211392072	0.465235425211	0.082440619	0.22968054	0.96976822
0.339094216182	0.226046168291	-0.258282760408	0.69782787	0.47346027	-0.5374678
-0.324381047416	-0.295438250483	-0.160878998954	-0.69205952	-0.63937808	-0.33503625
-0.0126455802709	-0.236631474433	-0.409931461088	-0.02509821	-0.48718451	-0.87293833
0.155821617239	0.353071403093	0.298894813217	0.32304018	0.7275372	0.60525586
0.320300528174	0.34255327809	0.0365548239528	0.68667672	0.72277309	0.077936783
-0.265871476165	0.290622439304	-0.26792226036	-0.57462902	0.59624083	-0.56062319
-0.0450011223033	0.163747718175	0.44813052977	-0.096359026	0.34688768	0.93294366
-0.211551189237	-0.298625613213	-0.301143348179	-0.44518321	-0.63106244	-0.63527325
0.4075191944	0.037527063595	0.239404848289	0.85413304	0.074051122	0.51475546
0.0702747988282	0.293076763007	0.370842937917	0.15111528	0.61061646	0.77737488
0.0398573534354	-0.457261371165	-0.0814871566201	0.08503758	-0.9821221	-0.16794282
-0.257929174014	-0.224768397097	0.32279913001	-0.55051069	-0.48504429	0.67946303
-0.387417788288	0.266923121216	0.0146216055189	-0.8313062	0.55489263	0.032002809
-0.18912618943	-0.379043060693	-0.206243758678	-0.38537639	-0.81788263	-0.42726227
-0.158164634457	0.293382880752	0.346494710963	-0.33852481	0.59969796	0.72509538
0.290710243019	-0.261589817301	-0.26020947131	0.6111354	-0.55191778	-0.56736257
-0.0732898020578	0.274718624054	0.382851280518	-0.1546389	0.56840474	0.80808593
0.12527203358	-0.239926777094	-0.379966952729	0.27086551	-0.51212819	-0.81508073
0.243821463977	-0.140519678268	0.395065260496	0.49551554	-0.30189728	0.81444605
0.425474042481	-0.195680970251	0.085896884514	0.89407356	-0.41164352	0.17658446
0.0349767040867	-0.42541209409	-0.184623694585	0.075112964	-0.92096768	-0.38233045
-0.357724355144	-0.305114383478	0.00441745640117	-0.73389209	-0.67917598	0.011063289
-0.0626641399718	0.214873423381	0.422146762064	-0.12988679	0.45071937	0.8831656
-0.125277774041	0.216658565347	0.409407152682	-0.25865941	0.45585291	0.85164161
-0.454186350272	0.00613558025548	0.133294035517	-0.95647456	0.0089417073	0.29167869
0.157513554769	0.21599587093	-0.39960216157	0.33834505	0.44935946	-0.82680028
0.177741397642	0.141952175716	0.422066544602	0.3667883	0.28766793	0.88471097
-0.0916274199776	-0.427002074144	-0.185626078338	-0.18883986	-0.90244007	-0.38722271
-0.131894664581	-0.44326077923	-0.151144565026	-0.27777225	-0.90836646	-0.31259071
-0.408386171506	0.237405005584	-0.0847491159237	-0.85464117	0.48933419	-0.17361027
-0.182418089712	0.448845385134	-0.0962022864809	-0.3760684	0.90521686	-0.19787623
0.170910919059	-0.247672699773	0.36311289854	0.36204717	-0.53534323	0.76310515
0.199072103687	0.407679095514	-0.163234634937	0.42474762	0.83926006	-0.33945841
-0.4725784518	0.0762887611307	0.0257370663886	-0.98657621	0.15346818	0.055811327
0.326713962599	0.00871800607	-0.34630361691	0.69748058	0.013728364	-0.71647218
0.0268061550287	-0.2525404356	0.389396092638	0.057942293	-0.51672505	0.85418846
-0.053106714662	0.426328236646	0.2193630736	-0.11342128	0.87758202	0.46581693
-0.280091433615	-0.146997371881	0.33825305739	-0.60947224	-0.31643365	0.72692045
-0.11100758305	0.0657548339647	0.451438305999	-0.23172967	0.13280078	0.96367282
-0.21342563243	-0.241721926196	-0.341705267091	-0.45317882	-0.52349904	-0.72151071
-0.303022485093	0.106396094418	0.365642505414	-0.61357638	0.21866142	0.75875636
-0.254956510599	-0.0610318580638	0.390980480274	-0.55757016	-0.1381725	0.81854986
0.407693922113	0.160741799185	-0.201781390121	0.84473921	0.33016959	-0.42119319
-0.419866227994	-0.21196117241	0.0587002757419	-0.88255074	-0.45318611	0.12540545
0.439416647598	-0.192449871738	-0.0350091020565	0.9155714	-0.39552077	-0.07274843
0.163201090868	-0.150519997367	0.421609705355	0.36334392	-0.31697174	0.87607655
0.0945135166907	0.11774227119	-0.451502723196	0.20156804	0.24061154	-0.94946112
-0.323339791471	0.114707935068	0.328981477428	-0.68776977	0.23120916	0.68812431
-0.0203739873796	0.135935663942	-0.457697338726	-0.041623001	0.2846124	-0.95773864
0.308921635804	-0.348979429026	0.00319508968047	0.66192777	-0.74951983	0.0084649915
-0.340653381946	0.0555514582766	-0.338045714672	-0.72354172	0.11209418	-0.6811184
-0.176746089584	-0.405255949091	-0.168372335182	-0.3745705	-0.85702273	-0.3538488
-0.197029975735	-0.418481610584	-0.0799504710862	-0.422873	-0.8908787	-0.16587216
0.0218481285079	-0.357723671869	0.324731333686	0.048507979	-0.74889764	0.66090794
-0.315577175048	-0.173666479834	0.313221934796	-0.65003127	-0.38254621	0.65659557
-0.303500219751	-0.213165358657	-0.293227395778	-0.63926579	-0.46134603	-0.6152228
-0.0207165140151	-0.150539006179	-0.445639573024	-0.041465435	-0.32763809	-0.94389295
-0.190836549768	-0.0126396472117	-0.419337018037	-0.39399772	-0.030851346	-0.91859349
0.34305732786	-0.279348098484	-0.176404536426	0.72402641	-0.58697259	-0.36228296
0.33103399923	-0.306475049244	-0.117181889647	0.71320498	-0.65580466	-0.24750535
0.0392315970194	-0.35388252055	0.295362484275	0.086878455	-0.79023523	0.60661389
-0.105020810357	0.162667224675	0.434322913742	-0.22171602	0.34044466	0.91375021
0.0669501267203	-0.375624325785	0.255150631941	0.1447939	-0.81563305	0.56015841
-0.233658965229	0.404706931744	0.0951764972298	-0.50559874	0.83776522	0.20620218
0.206066612455	0.323308191414	0.27812400805	0.43544087	0.67950989	0.59047232
0.463500445137	0.131073800487	-0.00776029191037	0.96007858	0.27932558	-0.015044827
-0.459069992177	-0.0240073734888	0.0130586163558	-0.99801062	-0.056193396	0.028584969
0.116724580174	0.405343896104	-0.203539394198	0.24915937	0.86679746	-0.43195113
0.451013517106	-0.0745520927973	-0.0470852423106	0.98156626	-0.16436404	-0.097530227
-0.308744456366	-0.0324489313801	0.346872496689	-0.65382785	-0.070522024	0.75334971
0.249904910626	-0.320994766183	-0.250910256187	0.53600091	-0.65814981	-0.52871717
0.354049095936	0.302920543275	0.00136105119523	0.76308491	0.64628345	0.0043714896
-0.415977000196	-0.168235206587	0.0739965288194	-0.91822448	-0.36193528	0.16083116
0.155984104835	0.4022680847	-0.194323628334	0.3326243	0.85737428	-0.39277272
0.321273453749	0.0263218940484	-0.342745818883	0.67674825	0.050994933	-0.73444627
-0.350996588013	-0.30742785521	-0.112051103294	-0.71984142	-0.65012607	-0.24323738
-0.0609381824523	0.378080128019	-0.281331581966	-0.12561402	0.801531	-0.58461028
-0.363626778458	0.285288210121	0.077681267523	-0.77160258	0.61245178	0.17184958
0.295159119263	0.281125987294	-0.223672337258	0.65150773	0.59420703	-0.47165208
-0.275724970329	0.239012535847	-0.307848441486	-0.56916175	0.50413965	-0.64953685
0.410144167991	0.235100417379	-0.020905886262	0.87651652	0.47954555	-0.041891035
0.0335096959722	0.395885970378	-0.284776699365	0.071189333	0.81260435	-0.5784516
-0.116514234367	-0.454271613057	0.0369910376827	-0.24519293	-0.96623505	0.079184918
-0.265456476138	0.0852064310909	-0.384025992454	-0.56914253	0.18270732	-0.80168249
-0.336347796111	0.332861399872	-0.0465957702653	-0.7234893	0.68367054	-0.095696562
0.163280070842	0.0564952516523	0.461801421948	0.3391689	0.11649097	0.93348503
0.310166228291	-0.3060979411	0.205131034041	0.62928924	-0.63703234	0.44517957
-0.409702313349	-0.241445682762	0.00380587395114	-0.85364002	-0.52077975	0.0093366693
0.330313436619	0.100316840421	-0.340540604521	0.68374965	0.20296724	-0.70092133
0.00773139952206	0.459240163298	-0.122779921435	0.018149254	0.96747058	-0.25233169
-0.2193014882	-0.0646430502545	-0.42022986755	-0.45917782	-0.14303148	-0.87675408
0.378471672725	0.234418191254	0.139941719944	0.81776866	0.49057893	0.30097628
-0.464298261029	0.0829126367366	0.000459108608141	-0.98504773	0.17226345	0.0025052366
-0.233291016295	-0.259998795727	-0.324747008684	-0.49320311	-0.55334116	-0.67124083
-0.451895376801	0.145195645781	-0.0933855208521	-0.93807265	0.28808235	-0.19242731
-0.351969521654	-0.220908094617	0.234767940394	-0.74024768	-0.46385958	0.48669051
-0.0675341647702	0.473467795732	-0.0894646991661	-0.14138875	0.97232832	-0.18597545
0.0581510481928	-0.351264324195	0.301052773878	0.12656251	-0.74530825	0.65459724
0.213068556112	-0.104290216412	0.398209105236	0.45287403	-0.23306549	0.86057283
-0.22027129206	-0.420078478431	0.031758790413	-0.46209028	-0.88416832	0.068694653
0.159051820377	-0.429350968952	-0.0672865368088	0.34472581	-0.92770385	-0.14328184
0.224992187768	-0.321250010291	-0.27530181323	0.45031758	-0.66002397	-0.60131725
0.0677769187015	0.452401944725	0.0849748292553	0.14035578	0.97337511	0.18122128
0.438261873538	-0.183422270858	-0.0486074065375	0.91754108	-0.38437145	-0.10186739
-0.232936043421	0.115138403212	-0.388794400939	-0.48992983	0.24041595	-0.83795521
-0.418661779825	0.191277272261	-0.127515703527	-0.8742238	0.39773923	-0.27845332
-0.416999231197	-0.0633376842308	-0.227116084785	-0.86624754	-0.14152927	-0.47914993
-0.384172768042	0.269975505294	-0.106503955582	-0.80130799	0.55472393	-0.22402426
0.392444989167	0.281102764003	0.00288826836584	0.81452683	0.58007658	0.0075635392
0.215605304161	0.328792065941	0.276460381839	0.45066763	0.67767131	0.58108544
-0.345086492562	0.31066558434	-0.103139703333	-0.73600996	0.6443534	-0.20760068
-0.1353811505	-0.0564366546322	0.455994750169	-0.29287669	-0.12058684	0.94851571
-0.0740915154653	-0.451464060731	-0.143572492715	-0.15203314	-0.94126572	-0.30150419
-0.183914631877	-0.415308259742	-0.145459629169	-0.38478475	-0.87258736	-0.30088534
-0.328222069197	0.180722427383	0.282281946172	-0.71347187	0.38269458	0.58694357
-0.149240596751	0.212650499853	-0.39741740181	-0.308641	0.43461485	-0.84607958
-0.0725529850883	-0.395402847336	-0.251826000639	-0.15015861	-0.84035801	-0.52081744
-0.181759959003	-0.397284779985	-0.193680085077	-0.38603718	-0.8273703	-0.40796285
-0.094742512116	0.0355600869041	0.460327056335	-0.1948356	0.069505708	0.9783701
-0.0422214787808	0.453092398622	-0.0430132436535	-0.087870022	0.99217362	-0.088715135
-0.0337111062475	-0.442072381861	0.135946758624	-0.069281061	-0.95446244	0.29017509
0.115781708271	0.156375270419	0.41404188406	0.24175249	0.32945663	0.91269604
0.165440112646	0.425622542389	0.14773724888	0.34649065	0.8814021	0.32105229
0.210439130793	-0.387115575176	0.177716701987	0.44741042	-0.81305635	0.37250944
0.18325149855	0.425206098469	-0.0351465677816	0.38900893	0.91803575	-0.076696892
-0.409537149117	0.221691621041	0.125234691165	-0.85179219	0.44796145	0.27162586
0.0405431621053	-0.209824990673	-0.420277658383	0.088368487	-0.46090636	-0.88303813
-0.299450176009	0.0910345036201	0.367746772503	-0.61309348	0.19356123	0.76593109
0.21488418544	-0.423097157112	-0.0962832512751	0.45290887	-0.86712384	-0.20729159
0.15790188049	0.00324305389867	0.438968657714	0.33319234	0.002774356	0.9428548
0.420552177969	-0.187028654974	0.140888877501	0.87313844	-0.3885533	0.29437324
0.157330300825	-0.428082374998	-0.14320890393	0.32376378	-0.8952639	-0.30607117
-0.407065971292	0.124318247779	-0.194535555164	-0.87767777	0.25715219	-0.4044187
0.102853726074	-0.272562414761	0.367027229111	0.21780605	-0.58498342	0.78125215
0.413029660195	0.204462493824	0.0773460678756	0.88929995	0.42736371	0.1628062
-0.29358392595	0.173857695832	-0.332141707963	-0.61965665	0.36941691	-0.69250038
0.047565395668	0.0941792859655	-0.463728603076	0.099889623	0.197445	-0.97521153
-0.140292346428	0.1084596644	0.435965724257	-0.29768868	0.22446564	0.92789904
-0.397564102902	0.284395376741	0.0122606367627	-0.7977964	0.60228108	0.027899992
-0.297174164367	-0.10224725904	0.369311866628	-0.60968124	-0.22874252	0.758924
-0.139799497152	0.0272780849788	0.468187315161	-0.2942568	0.053263804	0.95424101
-0.0566661990502	-0.321050696531	-0.344925595953	-0.11766187	-0.68154515	-0.72225473
0.237819365515	0.277224767541	-0.308136828713	0.50744649	0.56913697	-0.64697849
0.308272049357	0.120099292229	-0.333044563662	0.65622512	0.24948518	-0.71212762
-0.404377906248	-0.0709954786396	-0.233848461178	-0.85537448	-0.15249073	-0.49505665
0.359345549962	-0.0589323226554	-0.302325420982	0.75189802	-0.12835715	-0.6466636
-0.227175549185	-0.294093625078	-0.278749283658	-0.48746686	-0.64373362	-0.58990091
0.0261686388291	-0.403288491735	-0.236117859759	0.056195589	-0.86978199	-0.4902258
0.446242660693	0.166996740326	-0.0299892811197	0.93525681	0.3484942	-0.0620201
0.369289802058	-0.233323057633	0.194713809811	0.76888384	-0.49096319	0.40960076
0.267081192671	-0.318206618873	-0.240474867749	0.56326186	-0.66183603	-0.49468085
0.00369842002329	-0.44421447725	-0.177548464914	0.0095384206	-0.92694191	-0.3750836
-0.413019005846	0.20953525635	-0.142922264274	-0.84839748	0.43671788	-0.29916419
-0.411354905139	0.207235618094	0.11860374366	-0.86107444	0.44033843	0.25426931
-0.13900364283	-0.181984584314	-0.423443393078	-0.28682783	-0.38185196	-0.87858914
0.186278397411	-0.368185159997	0.247365617851	0.39539128	-0.76504599	0.50830145
0.00430071474623	0.4849673398	0.0282236895558	0.01068623	0.99814252	0.059977631
0.0465003462284	-0.408566362099	0.219945959572	0.097882857	-0.87830137	0.4679804
0.465250884788	-0.105603458606	-0.0330019646773	0.97208503	-0.22453854	-0.068067202
-0.000168519592858	0.0400317957387	0.480493528755	0.0012431243	0.078238558	0.99693389
-0.228995420039	-0.0284656562497	0.407554595174	-0.48986588	-0.06292359	0.86952403
0.447109999365	-0.161629721049	0.00802543420896	0.94230585	-0.33423703	0.018582051
0.351523783732	-0.30395065092	0.00664835284998	0.7652873	-0.64349673	0.015725803
0.104034308958	0.374614619124	0.25956534632	0.22280643	0.79820652	0.55966387
-0.241530716365	-0.332400377462	-0.236594570927	-0.5112012	-0.70219535	-0.49557545
-0.257274408436	-0.073680125884	0.396188964037	-0.53366505	-0.15942879	0.8305324
0.0326549446055	-0.274324042569	-0.397384651574	0.068429283	-0.56589853	-0.82163026
0.0809102640159	-0.438475623859	0.053842306481	0.16801523	-0.97876145	0.11746025
-0.420148942614	-0.0633563001595	-0.215887020914	-0.88538486	-0.13698582	-0.44421677
-0.455155315697	0.0153186870914	0.149763897326	-0.95043568	0.028220795	0.30963785
-0.422481384249	0.162705229962	-0.111152835503	-0.90815171	0.34411776	-0.2384186
-0.422571734588	-0.18004646414	-0.0583739178658	-0.91253813	-0.39059412	-0.12128643
-0.196057076733	-0.0321167735886	-0.428242390941	-0.41607315	-0.072152032	-0.90646413
-0.435605297044	0.18812079974	0.0297750986271	-0.91379493	0.40084063	0.065617154
-0.0548553535979	-0.413359570628	0.217026175017	-0.11760871	-0.88268943	0.45500282
-0.11952925278	-0.483241282161	0.0430456887408	-0.25098763	-0.9634772	0.093364368
-0.294892157934	0.0845255292862	-0.371254287167	-0.63031908	0.16837661	-0.75785696
0.105449457383	-0.184516864977	0.424382059517	0.22998105	-0.3782138	0.89669562
0.408189285272	-0.0262234976693	0.240838920117	0.86159727	-0.060756964	0.50394319
0.412363149875	0.140217172866	-0.191216893506	0.86710976	0.2939615	-0.40212846
-0.200753863738	-0.378614303584	-0.217723184561	-0.40432033	-0.79114357	-0.45893019
-0.207031182618	-0.275203346625	-0.319906843013	-0.44301421	-0.59352732	-0.6719105
-0.0169835913113	0.315142861108	0.35461463241	-0.034533367	0.67911191	0.73322197
-0.225234127937	0.102709511346	-0.410358212974	-0.50092538	0.21075241	-0.83943861
0.259701701486	-0.0149346203107	0.399918803651	0.56040029	-0.035401662	0.82746495
-0.273155254725	0.385101109433	0.0610871511634	-0.54847316	0.82583342	0.13105858
0.309694786408	0.201826571222	0.306245616333	0.64366723	0.4206398	0.63933923
-0.235356270741	-0.296102685829	0.285806674626	-0.49434525	-0.62560199	0.60352707
-0.273272255645	-0.269297085582	0.275932389441	-0.5835699	-0.57892213	0.56946935
-0.128139255289	0.054005482572	0.433284484373	-0.27151998	0.10663334	0.95650731
-0.38082905533	-0.0454239358196	0.28101576883	-0.80060957	-0.095789043	0.59148015
-0.436751487458	-0.173747427546	0.0126333083629	-0.92617693	-0.37606175	0.027818212
-0.330193875315	-0.155341332161	-0.297974209919	-0.71145223	-0.33066297	-0.62007881
-0.18926640083	-0.34785695111	-0.276545178669	-0.3949148	-0.71817671	-0.57294373
0.0534582588225	-0.387877296104	-0.259544105476	0.11555479	-0.82712421	-0.55001148
0.057217684729	0.0154274873324	0.45324465607	0.12700742	0.02830796	0.99149774
0.13628105483	0.242027039906	0.366235025092	0.29724935	0.5218877	0.7995474
0.28907045837	-0.16322153693	0.330001093952	0.62394543	-0.35373255	0.69682522
0.0413801346028	0.467920614805	0.018137212581	0.089765162	0.99523777	0.038000045
-0.0627391076022	-0.106243878726	-0.446745937033	-0.12583829	-0.23755352	-0.963189
-0.0897516648013	0.202264190031	-0.435860287296	-0.19077946	0.4259677	-0.88439512
-0.0313648677192	-0.0274299868861	-0.477915702104	-0.065152093	-0.064121461	-0.99581306
0.290168987489	-0.373099040627	-0.026721545673	0.62121612	-0.78172165	-0.054788608
-0.289297080837	0.206549413789	-0.308865608658	-0.60626062	0.4373238	-0.66422583
-0.377920169965	-0.0947336262164	0.250340133227	-0.81364818	-0.20940676	0.54233334
0.0166405629903	-0.00560796993114	-0.46744094515	0.036474904	-0.016329596	-0.99920114
-0.133809410574	0.423752683783	-0.163308693432	-0.27768296	0.89990259	-0.3362551
-0.0372962758059	0.342181588223	0.330082548901	-0.075715181	0.7189141	0.6909629
0.199586272099	-0.343324376497	-0.272432929833	0.40478171	-0.7233265	-0.55941983
0.275162051178	-0.260567114651	-0.274623925428	0.57926286	-0.56573745	-0.58685234
-0.0517336887314	-0.173566513345	0.426816619484	-0.10451866	-0.37487496	0.92116481
-0.0606438673378	-0.401480868115	0.234703454395	-0.1277983	-0.85270506	0.50651917
-0.314772811102	-0.344939037021	-0.0331086386037	-0.65761454	-0.75023394	-0.068499236
-0.264950765156	-0.350921614214	-0.180924100814	-0.57070257	-0.72566329	-0.38433235
-0.221294295541	0.290810152094	0.307271465845	-0.47429852	0.58718878	0.65593464
-0.315060175315	0.353637257955	-0.0202667911746	-0.68244008	0.72971905	-0.042256941
0.254622737763	0.0814803281382	0.400226454495	0.54412064	0.16879764	0.82185162
0.263666503796	0.0293037613709	0.390668032743	0.55153708	0.057384155	0.8321742
-0.185837791645	-0.0663379500675	0.42437073945	-0.38807664	-0.14339641	0.9104032
-0.294010100848	0.0914310675523	0.379515285021	-0.6066307	0.18668111	0.7727544
-0.0972939211636	-0.342814472386	-0.330298816902	-0.20159546	-0.69169961	-0.69347741
-0.201774431153	-0.412196794182	-0.113984748016	-0.42403567	-0.87207465	-0.24429399
-0.00500868174261	0.140851041135	0.454757979759	-0.0088720928	0.29601446	0.95514225
-0.0930876531809	0.0059908142043	0.483412328729	-0.19207382	0.0085646883	0.98134311
0.220501037665	0.326105373141	-0.259800260143	0.44397651	0.71819839	-0.53579467
0.387297907173	-0.1043469814	-0.271775654642	0.79197603	-0.22807011	-0.56635501
0.133422207038	0.442780941603	0.12100409716	0.28077391	0.92582787	0.25299953
0.175905249653	0.301799660616	-0.324505172429	0.37813281	0.61870481	-0.68863629
0.000276651068774	0.448117309817	-0.12631169664	0.0021605476	0.96387004	-0.26636417
-0.15970642083	-0.432748115685	0.0614786256441	-0.34257346	-0.92944702	0.13700969
0.371703029128	-0.0296822189363	-0.293242308735	0.78708444	-0.066827769	-0.61321459
-0.365240807427	0.0270414651983	0.287469326221	-0.79001152	0.05115526	0.61095412
0.249458784565	-0.32357149295	-0.240544925762	0.51985253	-0.69952914	-0.4903186
-0.266941153988	0.0462225478693	0.387804069402	-0.5494977	0.094469656	0.8301372
0.259756607871	0.125070222545	0.367828219386	0.56887611	0.26070532	0.78000814
-0.022220336003	0.32944986118	0.318577269592	-0.045338945	0.71641017	0.6962046
0.272695499221	0.343365852727	-0.186881413431	0.58397858	0.71283003	-0.3883843
0.32561552743	-0.259703131144	-0.224659292276	0.68296241	-0.56014939	-0.46882299
-0.027260478352	-0.141823889841	-0.444508226764	-0.055650288	-0.29693505	-0.95327468
-0.0980539135004	0.456307796514	0.0326213785671	-0.20326599	0.97661434	0.070052582
-0.234962512982	0.227144293139	-0.343721747548	-0.50047656	0.48569891	-0.71667271
0.153888581296	-0.195095336943	0.406439241351	0.31890221	-0.41018656	0.85442868
-0.456449269127	0.0426003590279	-0.16658972086	-0.93552729	0.082565811	-0.3434699
0.128514229148	-0.18629882829	-0.413264989202	0.27131454	-0.40257782	-0.87425369
-0.218087375482	0.0588948160643	0.429633659372	-0.45902042	0.1249263	0.87959859
-0.321877385072	0.330998661089	0.112947114378	-0.6736615	0.698995	0.23997119
0.229498799345	0.212222606327	-0.354615723278	0.48591621	0.44583921	-0.75173987
0.077821430999	0.404821431118	-0.227215722448	0.16519049	0.86025566	-0.48236118
-0.476526088718	0.0574455290253	0.0725962511203	-0.98030579	0.12073745	0.15627871
0.099722832247	0.0196612671078	0.460165894008	0.21659064	0.037156733	0.97555516
0.111852570556	-0.270475417928	0.376051098074	0.23292305	-0.58423868	0.7774394
-0.0295555966944	-0.400418265513	0.245409411286	-0.060077601	-0.85460314	0.51579468
-0.252216407028	0.0315459392632	-0.410241161283	-0.53431978	0.063706563	-0.84287831
0.381482457205	0.122832114648	-0.260220990192	0.78716103	0.26091824	-0.55883735
0.0607360316774	0.429652647306	-0.194989984442	0.12774638	0.90422461	-0.40750302
-0.459427607522	0.0506005901553	0.062956832782	-0.98621764	0.10438762	0.12836661
0.103488331237	-0.287122698795	0.361262051119	0.2170314	-0.6048767	0.76617332
0.0501160469443	-0.421931853022	-0.213593425374	0.10519672	-0.88999278	-0.44367386
0.274095830538	0.0709383573043	-0.383391453721	0.58411071	0.14719605	-0.79821551
0.349202483278	0.234108937086	-0.227960158411	0.73072503	0.49749842	-0.46747861
-0.460711929143	0.00963619612609	-0.111888530763	-0.97110805	0.016771771	-0.23805015
-0.123516360705	-0.311225130294	-0.332045747175	-0.25386141	-0.6859071	-0.68197202
0.0629381314439	0.383025457815	-0.281721943752	0.13381493	0.7965571	-0.58956793
-0.255339953274	-0.164938115074	-0.368166048694	-0.54065275	-0.35736234	-0.76156862
-0.0413329516007	0.0622957426377	-0.475842478961	-0.087097927	0.1254919	-0.988264
-0.163749136446	-0.157712811589	-0.417142625995	-0.34781917	-0.3337516	-0.87614593
-0.406024408822	-0.0912861391806	-0.235596583861	-0.8525629	-0.18976789	-0.48695446
0.255769455818	-0.329670011987	-0.223769979187	0.54878219	-0.68604069	-0.47768847
0.0262258125014	0.10526127674	-0.472583685024	0.058312284	0.21369415	-0.9751587
-0.0170996300468	0.449888947608	0.111578523093	-0.034117139	0.97128555	0.23545787
-0.442737889095	-0.0217921850158	-0.129504796984	-0.9625479	-0.048971586	-0.26665208
0.221770892356	-0.402403467147	-0.0949545836677	0.4659152	-0.86288586	-0.19583418
-0.383969947752	-0.204722376612	-0.181980558684	-0.81108098	-0.43330787	-0.39292739
0.200349038343	0.311486592206	-0.309150609402	0.43288349	0.64257043	-0.63223027
0.178405484233	-0.157603795974	0.420120820144	0.37358568	-0.33876154	0.86352438
-0.010104803935	-0.106223370504	-0.442903870885	-0.019560546	-0.22463293	-0.97424711
0.344464130838	-0.0950641065198	-0.31604311704	0.70955283	-0.20888416	-0.67298009
0.0959111590353	0.296984215274	-0.363426415112	0.20389589	0.61668484	-0.76034616
-0.361755407631	-0.0532015978676	-0.300616791608	-0.75824875	-0.11673687	-0.64142913
-0.383303250006	-0.110240583346	0.269340872611	-0.78233088	-0.23500701	0.57682762
0.11349461381	0.198395583385	-0.4088777776	0.2456476	0.41453101	-0.87625413
0.324551905134	0.315926506156	-0.165023970031	0.66240529	0.66318601	-0.34843011
-0.280166512277	-0.276697564705	-0.244894203726	-0.60862948	-0.60192016	-0.51697415
-0.372214654237	0.0128834001958	0.294905650722	-0.79681659	0.024132164	0.60373915
0.11344864979	0.182687645114	-0.41318614351	0.23384218	0.39673009	-0.88765031
0.193717811835	-0.180706392242	0.381302936601	0.41628937	-0.38941761	0.82161858
-0.114268932151	0.455449223219	0.0452252480165	-0.25114567	0.96302836	0.097479424
-0.150394542814	0.0173463225854	-0.46558741872	-0.310775	0.032604968	-0.94992411
-0.346460085042	-0.0910714450856	0.332423681893	-0.70398868	-0.19976667	0.6815374
-0.387128303075	-0.235111327956	-0.0509432365538	-0.84684793	-0.52241295	-0.099665932
0.404684384136	0.234183856792	0.0208545893261	0.86545798	0.4989644	0.044911163
-0.335529671286	0.24880326691	0.217821644522	-0.71996699	0.52040925	0.4591533
-0.222487604901	0.154658017541	-0.396165230187	-0.46488295	0.33318137	-0.82028898
0.136405739749	0.121243773032	-0.440111690827	0.29310189	0.24760673	-0.92346207
-0.219163853791	-0.376539177709	-0.147716401393	-0.44503811	-0.8402341	-0.30975433
-0.0437527190381	0.0156496376684	0.471703385	-0.089017092	0.027563362	0.99564864
0.248312843261	0.0542333249703	0.389448552044	0.54219148	0.11035421	0.8329768
-0.0610096810374	-0.224208470122	-0.416443569947	-0.12552517	-0.47720828	-0.8697791
-0.377925199155	0.0708504482511	-0.28355445757	-0.7891032	0.14161423	-0.59771361
-0.0536005309618	-0.362039353095	-0.301825503604	-0.1133151	-0.76243455	-0.63706612
-0.0158098431729	0.213268447334	0.426225620093	-0.032142968	0.44416226	0.8953696
0.273122714216	0.193084633484	-0.334293693761	0.5753957	0.42016647	-0.70169789
-0.0195493346192	-0.263320481828	-0.388985418124	-0.039707563	-0.56864212	-0.8216261
0.281052569844	0.00368664887541	-0.380247448602	0.58252704	0.0037055065	-0.81280287
0.425658490258	-0.19369194702	-0.0718132385763	0.88940838	-0.43343765	-0.14520519
-0.0755883280931	-0.369119334851	-0.278994844712	-0.15861752	-0.79983139	-0.57888706
-0.313759297081	0.341710010635	0.0477756712497	-0.67007487	0.73574797	0.098359532
-0.171995573895	0.437632643949	-0.0303779176357	-0.3648226	0.92900655	-0.062058828
0.239341642008	-0.122873185658	-0.398547808567	0.49371581	-0.26592756	-0.82796572
-0.0452146979146	-0.0656172232809	0.462162683326	-0.093323242	-0.14490038	0.98503536
0.00238079498362	0.266617275357	0.394832338136	0.0067783756	0.57202542	0.82020789
-0.161055098912	0.0921999026096	-0.440784268537	-0.32770073	0.19178888	-0.9251104
-0.24725476024	0.260301791759	-0.304414726242	-0.52616087	0.54556097	-0.65231738
0.226363394953	-0.388914338519	0.142157333851	0.48133713	-0.82145132	0.30583051
0.216203594194	-0.0225809096932	-0.422633395908	0.45528223	-0.052432135	-0.88880198
0.0592299359963	-0.428009434418	0.133577713365	0.12792027	-0.949199	0.28750245
0.444813912718	0.0866946164198	-0.13461194581	0.94457203	0.17545946	-0.27748453
-0.452352541553	0.0741136625985	-0.0904934777464	-0.96811328	0.15539003	-0.19649583
0.458043773981	0.114195443527	-0.0261092561849	0.96744243	0.24778575	-0.05154968
-0.394069996091	-0.281435543717	0.0164843039697	-0.81584643	-0.57715815	0.035819853
-0.0197356223528	0.172262265235	0.4291155645	-0.039610615	0.36617699	0.92970179
0.0861704759854	0.301418120198	-0.34834492161	0.18163194	0.65670377	-0.73194945
-0.00945152965278	0.389400906882	0.269585124529	-0.018458861	0.81604201	0.57769776
0.267189818724	-0.369136716139	-0.155522001996	0.55594669	-0.76521445	-0.32460764
-0.16448068318	0.435085802407	-0.0311040991413	-0.3376876	0.93923208	-0.061726614
0.112361538959	-0.453774837322	0.0265017725654	0.23378672	-0.970694	0.055650095
0.0859842360336	0.309694567665	0.34874776171	0.18936239	0.65337607	0.73296766
0.402048424048	-0.0637872503925	0.255111429024	0.84360066	-0.13843681	0.51881902
-0.0127576167217	-0.405010533233	0.251310087029	-0.024998636	-0.85618386	0.51606614
-0.306514657381	-0.122457349568	0.3364583918	-0.64209026	-0.25615889	0.72256676
-0.0375106006001	-0.368400087545	0.291840478482	-0.077542356	-0.76615611	0.63795925
0.137440855707	-0.429707845981	-0.10423184715	0.29199299	-0.9309778	-0.21913563
-0.357130039021	0.165609571073	-0.260841986314	-0.75437809	0.34131108	-0.56073206
0.200384235559	0.410265633925	0.114837243957	0.4121667	0.87724598	0.24608556
0.111055590728	-0.261407882458	0.381953151281	0.2322059	-0.55241037	0.80057679
0.372976456779	0.281034557001	-0.0885856684205	0.78875764	0.58736294	-0.18129026
0.0143559745836	0.480412385075	0.109309462828	0.031518977	0.97372811	0.22552188
-0.101974903158	-0.0084841027831	0.466601067499	-0.21648645	-0.022731295	0.97602095
0.0888709206481	-0.427873109146	0.169431507174	0.18894886	-0.90931362	0.37073853
0.222130232023	0.211092005976	-0.375500207414	0.47104097	0.42802229	-0.77130884
0.0531950740126	0.4664020745	-0.0490548279742	0.112337	0.98845342	-0.10168696
0.147940366205	0.348938953509	0.306724517303	0.31643676	0.71697192	0.62114333
0.196324461313	0.0751175538272	-0.434751835976	0.42330319	0.14992951	-0.89349625
0.448672904637	-0.116789540669	0.12042870444	0.93716942	-0.24859021	0.24477822
-0.242214134901	0.104717790127	0.399367793418	-0.51973286	0.21666978	0.82639698
-0.193466431079	0.0319882428735	-0.441188217535	-0.40048411	0.062202284	-0.91419
-0.16171294255	-0.357466733333	-0.27608694535	-0.34359277	-0.74056352	-0.57750297
-0.212423635392	0.271106550723	0.315273230973	-0.44484542	0.58271642	0.68011332
-0.127460338304	-0.415714418946	0.136499935884	-0.26671593	-0.92100996	0.28390715
-0.0306436223078	-0.0807323415166	-0.457738131207	-0.066605682	-0.17126312	-0.98297133
0.149239624033	-0.0378731268442	-0.449676275343	0.30362092	-0.084956179	-0.94899778
0.334175799364	0.0439895252008	-0.336377639581	0.72519855	0.087282167	-0.68298527
0.0116143335012	-0.0332352376902	-0.473269119221	0.026282062	-0.073465362	-0.9969514
0.154131816842	-0.316866142941	-0.324910088452	0.3177566	-0.67027961	-0.67063849
0.00229167895317	0.0694167436834	0.468321678864	0.0063275178	0.14410921	0.98954156
0.144292430414	-0.436441017629	-0.0193027297676	0.32189492	-0.94589941	-0.040718076
0.467181267345	-0.100081695045	-0.0495114688816	0.97076096	-0.21682997	-0.10299476
0.16373804129	0.428906137318	0.130404059794	0.35442385	0.89388488	0.27450603
0.204800265718	0.430896571228	-0.0185335012103	0.43946088	0.89742851	-0.038680881
-0.103792080294	-0.290013426596	-0.346666253855	-0.21674628	-0.63688532	-0.73986359
0.25839292478	-0.384218783307	0.025885519132	0.56611947	-0.82237199	0.056683864
-0.0974837459379	0.457348692317	-0.0786654135209	-0.19851478	0.96643616	-0.16307367
-0.184627031721	-0.0247284374527	0.421844020838	-0.38514012	-0.056621996	0.92111945
0.330066809846	0.182801972246	-0.291294403015	0.69380852	0.37615343	-0.61411589
-0.125718345169	0.285673019822	0.358442503041	-0.26635916	0.61214092	0.74453764
-0.322234310974	0.284901866373	0.225921179219	-0.66306062	0.57909718	0.47433855
-0.202687699207	0.422284080933	0.070727657048	-0.43625827	0.88768233	0.14730515
-0.0721776283113	-0.370031374433	0.267525741505	-0.15446985	-0.80946948	0.56647879
-0.190709317276	0.305683527076	0.318941858615	-0.39982875	0.63537208	0.66063552
-0.258252866642	-0.369370953804	0.129759413807	-0.55521688	-0.78391602	0.27786668
-0.0693276816032	0.472339178777	0.0193834914297	-0.13801319	0.98945227	0.044006381
-0.0590494806337	0.468289554489	0.0894494051887	-0.12494049	0.97364177	0.1908182
0.273243092603	0.34710564396	-0.185853618482	0.56568415	0.73557802	-0.37272835
-0.342542440111	1.72259523594e-05	0.33695784085	-0.69748728	-0.0039540281	0.71658625
0.0320751046176	-0.397801052315	-0.237666141043	0.070039992	-0.86025318	-0.50503354
-0.0882103211334	0.451105084054	0.0857955021272	-0.18541468	0.96498565	0.1855373
-0.211937467979	0.37769470005	-0.192851282654	-0.43751616	0.79831895	-0.41384353
0.227129581844	-0.357578206841	-0.198354437404	0.4754751	-0.76761064	-0.42976427
-0.222699288314	0.159348521735	-0.387599783867	-0.47958649	0.33647738	-0.81041951
-0.0150125974839	-0.385164879416	-0.261284135144	-0.029394278	-0.83408102	-0.55085827
-0.177453725481	-0.0865715471617	0.427815044036	-0.3708873	-0.19162614	0.90869248
-0.175917457979	-0.188656683019	-0.39820859183	-0.37276385	-0.39775466	-0.83835455
-0.169197810435	0.164479536796	-0.407482840361	-0.34370679	0.33650731	-0.87671459
-0.0867763669805	0.193021159587	0.422761430299	-0.18371885	0.41285321	0.89207601
0.216675949483	0.380027155446	0.189730775559	0.46879643	0.78027164	0.41401216
-0.375703322841	-0.110531129533	-0.252863095723	-0.80809107	-0.23020659	-0.5422119
0.255111679084	0.0404110873744	-0.402981041129	0.54534232	0.080593728	-0.83432991
-0.34733486145	0.0613041337559	0.321053080877	-0.73378763	0.12924477	0.66697189
-0.31833317236	-0.252094451414	-0.244483144395	-0.68292215	-0.52265898	-0.51033805
-0.16746065859	-0.230137363708	-0.381037646449	-0.35420911	-0.47646387	-0.80468509
0.377862205449	-0.0471874419705	-0.289639298291	0.77598816	-0.10320378	-0.62224703
-0.103071463116	0.388439185123	0.229127592042	-0.21567084	0.85194781	0.47714884
0.363931637838	0.270081886504	0.0822455427857	0.78743208	0.58859305	0.18305449
0.25640574402	-0.3223167078	0.225790793697	0.54606206	-0.68048943	0.48862088
-0.17056449709	0.439925935811	0.131771720116	-0.3549758	0.89456769	0.27155264
0.133605163948	-0.237925396546	0.390629024844	0.28851514	-0.50359031	0.81434379
-0.0736471350779	0.110066409845	-0.474805462169	-0.15189107	0.22594402	-0.96222575
0.280699031374	0.311220944759	0.236909632461	0.58379427	0.64334947	0.49526328
-0.257935983516	-0.0359059678991	-0.396343448298	-0.53795938	-0.079844368	-0.8391809
-0.174993758589	-0.322435618569	-0.302525841742	-0.36967676	-0.67125575	-0.64245997
-0.0515445600437	0.394300654153	0.260370662107	-0.10972427	0.83347705	0.54155018
-0.145473232989	0.135003662284	0.42667916918	-0.30462578	0.2734853	0.91236447
-0.0333568847394	0.471535187785	-0.045081616112	-0.071238756	0.99274161	-0.096897512
-0.342105991885	-0.303492674305	0.130438271954	-0.71796006	-0.63909594	0.27584366
0.322631909784	0.035160000261	0.329944713781	0.7080044	0.070236312	0.70270664
0.301633692587	0.220553743334	-0.294329590859	0.6393383	0.46978292	-0.60872863
0.450410164668	-0.109322194998	0.120029967313	0.93576241	-0.24267371	0.25584796
-0.239613353998	-0.0290344468229	0.394444240648	-0.50581559	-0.064438634	0.86023151
-0.159885159464	0.330628598272	-0.286879145811	-0.34040437	0.71237314	-0.61371767
-0.295540738922	0.178580551685	-0.340796668084	-0.59653447	0.38050228	-0.70665737
0.306181201034	0.167576695807	-0.315923105913	0.63651275	0.35555557	-0.68442074
0.389053371269	-0.262195290739	0.0497049520254	0.82513097	-0.5550447	0.10528179
0.180188892863	-0.166051945763	0.398617076543	0.383494	-0.3556138	0.85233279
-0.322021275245	-0.113042875877	-0.32702864928	-0.68232675	-0.24391888	-0.6891544
-0.123153803002	0.325515648248	-0.314079940119	-0.26401214	0.71428108	-0.64815131
0.260058883142	-0.170512919774	0.362858112796	0.53484758	-0.36723074	0.76097283
0.0371063170812	0.292628186646	-0.381816484371	0.079546924	0.62360532	-0.77768161
-0.355039977414	-0.311301827939	0.0244905246688	-0.76300931	-0.64408695	0.054486648
0.265537301905	0.381663149341	-0.072562860788	0.5770588	0.80260917	-0.15106841
-0.150363790208	0.31670949545	-0.331818015335	-0.30592353	0.65875344	-0.6873534
-0.161066956584	0.437745892075	-0.104354081769	-0.33326939	0.91710259	-0.21875639
0.0871874808793	-0.409368278117	-0.223835717857	0.18202757	-0.86509132	-0.46742163
-0.38393904141	-0.165989968428	-0.226505567448	-0.80436872	-0.35117519	-0.47923579
-0.339897548098	0.15269886103	-0.301324191206	-0.71275017	0.31377509	-0.62732159
